ply
        format ascii 1.0
        element vertex 85253
        property float x
        property float y
        property float z
        property uchar red
        property uchar green
        property uchar blue
        end_header
360.000000 1285.333374 1258.666626 30 30 28
354.666656 1285.333374 1258.666626 32 32 30
349.333344 1285.333374 1258.666626 26 26 24
1032.000000 3856.000000 3776.000000 24 24 22
338.666656 1285.333374 1258.666626 28 28 26
-19.040001 -77.120003 -75.519997 28 28 26
-18.719999 -77.120003 -75.519997 27 27 25
-18.400000 -77.120003 -75.519997 30 30 28
-19.652174 -83.826088 -82.086960 32 32 30
55.500000 241.000000 236.000000 29 29 27
52.500000 241.000000 236.000000 30 30 28
-10.986667 -51.413334 -50.346668 31 31 29
-12.242424 -58.424244 -57.212120 28 28 26
264.000000 1285.333374 1258.666626 27 27 25
-47.428570 -275.428558 -269.714294 29 29 27
-8.756757 -52.108109 -51.027027 26 26 24
-8.207792 -50.077923 -49.038960 21 21 19
-8.000000 -50.077923 -49.038960 27 27 25
-7.407407 -47.604939 -46.617283 35 35 33
-7.300000 -48.200001 -47.200001 33 33 31
-7.100000 -48.200001 -47.200001 27 27 25
-6.987342 -48.810127 -47.797470 27 27 25
-10.509804 -75.607841 -74.039215 29 29 27
-10.833333 -80.333336 -78.666664 29 29 27
-10.500000 -80.333336 -78.666664 29 29 27
-7.625000 -60.250000 -59.000000 28 28 26
-7.044776 -57.552238 -56.358208 24 24 22
-7.125000 -60.250000 -59.000000 23 23 21
-4.553846 -59.323078 -58.092308 23 23 21
-4.444445 -61.206348 -59.936508 24 24 22
-4.474576 -65.355934 -64.000000 27 27 25
-5.276596 -82.042557 -80.340424 26 26 24
-2.518518 -71.407410 -69.925926 30 30 28
-1.904762 -61.206348 -59.936508 31 31 29
-1.625000 -60.250000 -59.000000 33 33 31
-1.375000 -60.250000 -59.000000 34 34 32
-inf -inf -inf 31 31 29
-1.333333 -214.222229 -209.777771 33 33 33
-0.421053 -202.947372 -198.736847 34 34 34
0.500000 -241.000000 -236.000000 31 31 31
1.500000 -241.000000 -236.000000 33 33 33
2.857143 -275.428558 -269.714294 33 33 33
5.090909 -350.545441 -343.272736 32 32 32
9.000000 -482.000000 -472.000000 34 34 34
11.000000 -482.000000 -472.000000 38 38 38
13.000000 -482.000000 -472.000000 33 33 33
60.000000 -1928.000000 -1888.000000 25 25 25
2.625000 -60.250000 -59.000000 30 30 30
2.875000 -60.250000 -59.000000 29 29 29
3.448276 -66.482758 -65.103447 38 38 38
36.000000 -642.666687 -629.333313 48 48 48
46.400002 -771.200012 -755.200012 47 47 47
41.333332 -642.666687 -629.333313 46 46 46
1.851685 -8.665169 -8.485394 44 44 44
1.883408 -8.645740 -8.466368 45 45 45
1.919283 -8.645740 -8.466368 44 44 44
1.311340 -3.975258 -3.892783 46 46 46
1.298387 -3.887097 -3.806452 46 46 46
1.314516 -3.887097 -3.806452 46 46 46
1.330645 -3.887097 -3.806452 45 45 45
1.964722 -5.232022 -5.123474 47 47 47
1.575888 -4.150700 -4.064586 47 47 47
1.586281 -4.132905 -4.047160 46 46 46
1.606874 -4.141783 -4.055854 46 46 46
1.926115 -4.912102 -4.810191 46 46 46
1.930372 -4.629052 -4.533013 46 46 46
1.786243 -4.080423 -3.995767 46 46 46
1.797468 -4.067511 -3.983122 46 46 46
1.802935 -4.041929 -3.958071 46 46 46
1.808333 -4.016667 -3.933333 46 46 46
1.815544 -3.995855 -3.912953 46 46 46
1.822680 -3.975258 -3.892783 46 46 46
1.833505 -3.963001 -3.880781 46 46 46
1.844262 -3.950820 -3.868852 46 46 46
1.860656 -3.950820 -3.868852 46 46 46
1.877049 -3.950820 -3.868852 47 47 47
2.130337 -4.332584 -4.242697 47 47 47
1.943548 -3.887097 -3.806452 47 47 47
1.959677 -3.887097 -3.806452 48 48 48
1.975806 -3.887097 -3.806452 47 47 47
1.991935 -3.887097 -3.806452 47 47 47
2.008065 -3.887097 -3.806452 47 47 47
2.413461 -4.634615 -4.538462 50 50 50
2.432692 -4.634615 -4.538462 47 47 47
2.451923 -4.634615 -4.538462 47 47 47
2.072581 -3.887097 -3.806452 47 47 47
2.088710 -3.887097 -3.806452 46 46 46
2.104839 -3.887097 -3.806452 46 46 46
2.120968 -3.887097 -3.806452 46 46 46
2.137097 -3.887097 -3.806452 46 46 46
2.153226 -3.887097 -3.806452 46 46 46
2.169355 -3.887097 -3.806452 46 46 46
2.185484 -3.887097 -3.806452 46 46 46
2.226300 -3.930683 -3.849133 46 46 46
2.217742 -3.887097 -3.806452 46 46 46
2.233871 -3.887097 -3.806452 46 46 46
2.250000 -3.887097 -3.806452 46 46 46
2.266129 -3.887097 -3.806452 46 46 47
2.396660 -4.025052 -3.941545 47 45 47
2.415883 -4.029258 -3.945663 48 46 47
3.952462 -6.546690 -6.410866 48 47 46
-28.765957 -82.382980 -80.340424 32 32 30
-27.833334 -80.666664 -78.666664 29 29 27
-27.500000 -80.666664 -78.666664 32 32 30
-27.744680 -82.382980 -80.340424 34 34 32
80.500000 242.000000 236.000000 34 34 32
79.500000 242.000000 236.000000 33 33 31
-1256.000000 -3872.000000 -3776.000000 30 30 28
-36.470589 -113.882355 -111.058823 28 28 26
-37.090908 -117.333336 -114.424240 31 31 29
75.500000 242.000000 236.000000 36 36 34
74.500000 242.000000 236.000000 31 30 28
73.500000 242.000000 236.000000 22 21 19
72.500000 242.000000 236.000000 24 23 21
163.428574 553.142883 539.428589 30 29 27
188.000000 645.333313 629.333313 32 31 29
278.000000 968.000000 944.000000 30 29 27
365.333344 1290.666626 1258.666626 29 28 26
360.000000 1290.666626 1258.666626 34 34 32
354.666656 1290.666626 1258.666626 33 33 31
349.333344 1290.666626 1258.666626 36 36 34
516.000000 1936.000000 1888.000000 32 32 30
338.666656 1290.666626 1258.666626 26 26 24
333.333344 1290.666626 1258.666626 21 21 19
328.000000 1290.666626 1258.666626 26 26 24
322.666656 1290.666626 1258.666626 29 29 27
317.333344 1290.666626 1258.666626 31 31 29
312.000000 1290.666626 1258.666626 27 27 25
-18.400000 -77.440002 -75.519997 26 26 24
56.500000 242.000000 236.000000 30 30 28
55.500000 242.000000 236.000000 32 32 30
54.500000 242.000000 236.000000 29 29 27
53.500000 242.000000 236.000000 28 28 26
52.500000 242.000000 236.000000 27 27 25
164.800003 774.400024 755.200012 26 26 24
161.600006 774.400024 755.200012 29 29 27
264.000000 1290.666626 1258.666626 31 31 29
388.000000 1936.000000 1888.000000 23 23 21
760.000000 3872.000000 3776.000000 21 21 19
-136.000000 -774.400024 -755.200012 29 29 27
-47.428570 -276.571442 -269.714294 33 33 31
-8.526316 -50.947369 -49.684212 32 32 30
-8.102564 -49.641026 -48.410255 30 30 28
-7.797468 -49.012657 -47.797470 30 30 28
-7.407407 -47.802467 -46.617283 29 29 27
-7.300000 -48.400002 -47.200001 27 27 25
-7.100000 -48.400002 -47.200001 26 26 24
-7.168831 -50.285713 -49.038960 27 27 25
-8.375000 -60.500000 -59.000000 24 24 22
-10.833333 -80.666664 -78.666664 22 22 20
-10.166667 -80.666664 -78.666664 30 30 28
-7.375000 -60.500000 -59.000000 27 27 25
-360.000000 -3872.000000 -3776.000000 21 21 19
-328.000000 -3872.000000 -3776.000000 28 28 26
148.000000 1936.000000 1888.000000 25 25 23
-4.444445 -61.460316 -59.936508 25 25 23
-4.190476 -61.460316 -59.936508 32 32 30
-5.276596 -82.382980 -80.340424 35 35 33
14.500000 242.000000 236.000000 30 30 28
-inf -inf -inf 31 31 29
66.666664 1290.666626 1258.666626 30 30 28
92.000000 1936.000000 1888.000000 29 29 27
56.000000 1290.666626 1258.666626 28 28 26
76.000000 1936.000000 1888.000000 29 29 27
136.000000 3872.000000 3776.000000 27 27 25
-inf -inf -inf 23 23 21
-104.000000 -3872.000000 -3776.000000 27 27 25
-88.000000 -3872.000000 -3776.000000 33 33 31
-inf -inf -inf 36 36 34
56.000000 3872.000000 3776.000000 30 30 29
40.000000 3872.000000 3776.000000 32 32 32
-3.428571 -553.142883 -539.428589 32 32 32
-0.470588 -227.764709 -222.117645 30 30 30
0.500000 -242.000000 -236.000000 32 32 32
8.000000 -1290.666626 -1258.666626 35 35 35
13.333333 -1290.666626 -1258.666626 25 25 25
14.000000 -968.000000 -944.000000 21 21 21
18.000000 -968.000000 -944.000000 31 31 31
14.666667 -645.333313 -629.333313 41 41 41
13.000000 -484.000000 -472.000000 32 32 32
24.000000 -774.400024 -755.200012 27 27 27
34.000000 -968.000000 -944.000000 37 37 37
76.000000 -1936.000000 -1888.000000 58 58 58
41.333332 -645.333313 -629.333313 64 64 64
44.000000 -645.333313 -629.333313 53 53 53
1.322245 -4.024948 -3.925156 45 45 45
1.327835 -3.991753 -3.892783 46 46 46
1.314516 -3.903226 -3.806452 46 46 46
1.330645 -3.903226 -3.806452 45 45 45
1.577586 -4.172414 -4.068965 46 46 46
1.589689 -4.158969 -4.055854 46 46 46
1.610334 -4.167922 -4.064586 46 46 46
1.678135 -4.297447 -4.190899 46 46 46
1.939686 -4.670688 -4.554885 47 47 47
1.919622 -4.576832 -4.463357 47 47 47
1.788136 -4.101695 -4.000000 46 46 46
1.803175 -4.097354 -3.995767 46 46 46
1.808622 -4.071504 -3.970557 46 46 46
1.810219 -4.037539 -3.937435 46 46 46
1.817427 -4.016598 -3.917012 46 46 46
1.832124 -4.012435 -3.912953 46 46 46
1.839175 -3.991753 -3.892783 46 46 46
1.849949 -3.979445 -3.880781 45 45 45
1.862564 -3.971282 -3.872821 45 45 45
1.884774 -3.983539 -3.884774 46 46 46
2.123180 -4.335946 -4.228444 47 47 47
2.138702 -4.331096 -4.223714 48 48 48
1.943548 -3.903226 -3.806452 48 48 48
1.959677 -3.903226 -3.806452 48 48 48
1.975806 -3.903226 -3.806452 47 47 47
1.991935 -3.903226 -3.806452 46 46 46
2.391356 -4.648259 -4.533013 48 48 48
2.413461 -4.653846 -4.538462 50 50 50
2.432692 -4.653846 -4.538462 48 48 48
2.451923 -4.653846 -4.538462 47 47 47
2.072581 -3.903226 -3.806452 47 47 47
2.088710 -3.903226 -3.806452 46 46 46
2.104839 -3.903226 -3.806452 46 46 46
2.120968 -3.903226 -3.806452 46 46 46
2.137097 -3.903226 -3.806452 46 46 46
2.153226 -3.903226 -3.806452 46 46 46
2.169355 -3.903226 -3.806452 46 46 46
2.233871 -3.903226 -3.806452 46 46 46
2.250000 -3.903226 -3.806452 46 46 46
2.266129 -3.903226 -3.806452 46 46 47
2.399164 -4.045977 -3.945663 47 45 47
2.431125 -4.071504 -3.970557 48 46 47
84.500000 243.000000 236.000000 36 36 34
83.500000 243.000000 236.000000 37 37 35
82.500000 243.000000 236.000000 30 30 28
81.500000 243.000000 236.000000 26 26 24
80.500000 243.000000 236.000000 30 30 28
79.500000 243.000000 236.000000 34 34 32
78.500000 243.000000 236.000000 31 31 29
-124.000000 -388.799988 -377.600006 28 28 26
-1224.000000 -3888.000000 -3776.000000 28 28 26
75.500000 243.000000 236.000000 34 33 31
74.500000 243.000000 236.000000 35 34 32
73.500000 243.000000 236.000000 30 29 27
72.500000 243.000000 236.000000 29 28 26
71.500000 243.000000 236.000000 31 30 28
161.142853 555.428589 539.428589 29 28 26
278.000000 972.000000 944.000000 33 32 30
365.333344 1296.000000 1258.666626 34 34 32
360.000000 1296.000000 1258.666626 31 31 29
532.000000 1944.000000 1888.000000 23 23 21
524.000000 1944.000000 1888.000000 29 29 27
516.000000 1944.000000 1888.000000 32 32 30
508.000000 1944.000000 1888.000000 26 26 24
500.000000 1944.000000 1888.000000 23 23 21
328.000000 1296.000000 1258.666626 25 25 23
322.666656 1296.000000 1258.666626 28 28 26
238.000000 972.000000 944.000000 30 30 28
58.500000 243.000000 236.000000 31 31 29
57.500000 243.000000 236.000000 29 29 27
56.500000 243.000000 236.000000 27 27 25
55.500000 243.000000 236.000000 27 27 25
54.500000 243.000000 236.000000 29 29 27
53.500000 243.000000 236.000000 29 29 27
52.500000 243.000000 236.000000 24 24 22
51.500000 243.000000 236.000000 20 20 18
161.600006 777.599976 755.200012 26 26 24
396.000000 1944.000000 1888.000000 33 33 31
388.000000 1944.000000 1888.000000 30 30 28
760.000000 3888.000000 3776.000000 27 27 25
-136.000000 -777.599976 -755.200012 30 30 28
-66.400002 -388.799988 -377.600006 26 26 24
-46.285713 -277.714294 -269.714294 23 23 21
-8.000000 -49.215191 -47.797470 27 27 25
-7.512195 -47.414635 -46.048782 26 26 24
-7.317073 -47.414635 -46.048782 23 23 21
-7.684210 -51.157894 -49.684212 22 22 20
-7.473684 -51.157894 -49.684212 24 24 22
-8.625000 -60.750000 -59.000000 27 27 25
-107.199997 -777.599976 -755.200012 26 26 24
30.500000 243.000000 236.000000 29 29 27
29.500000 243.000000 236.000000 28 28 26
28.500000 243.000000 236.000000 27 27 25
27.500000 243.000000 236.000000 28 28 26
26.500000 243.000000 236.000000 22 22 20
25.500000 243.000000 236.000000 22 22 20
-inf -inf -inf 30 30 28
-360.000000 -3888.000000 -3776.000000 24 24 22
-344.000000 -3888.000000 -3776.000000 26 26 24
-328.000000 -3888.000000 -3776.000000 32 32 30
-inf -inf -inf 34 34 32
296.000000 3888.000000 3776.000000 29 29 27
-inf -inf -inf 29 29 27
264.000000 3888.000000 3776.000000 30 30 28
-82.666664 -1296.000000 -1258.666626 29 29 27
46.400002 777.599976 755.200012 26 26 24
-inf -inf -inf 29 29 27
-inf -inf -inf 25 25 23
-inf -inf -inf 22 22 20
168.000000 3888.000000 3776.000000 25 25 23
152.000000 3888.000000 3776.000000 31 31 29
-inf -inf -inf 33 33 31
-inf -inf -inf 30 30 28
-104.000000 -3888.000000 -3776.000000 30 30 28
-88.000000 -3888.000000 -3776.000000 30 30 28
-72.000000 -3888.000000 -3776.000000 29 29 27
-inf -inf -inf 30 30 29
-40.000000 -3888.000000 -3776.000000 35 35 35
-8.000000 -1296.000000 -1258.666626 27 27 27
-0.800000 -388.799988 -377.600006 21 21 21
1.142857 -555.428589 -539.428589 31 31 31
8.000000 -1296.000000 -1258.666626 42 42 42
13.333333 -1296.000000 -1258.666626 30 30 30
18.666666 -1296.000000 -1258.666626 27 27 27
36.000000 -1944.000000 -1888.000000 43 43 43
22.000000 -972.000000 -944.000000 59 59 59
17.333334 -648.000000 -629.333313 61 61 61
20.000000 -648.000000 -629.333313 67 67 67
27.200001 -777.599976 -755.200012 57 57 57
30.400000 -777.599976 -755.200012 50 50 50
33.599998 -777.599976 -755.200012 49 49 49
26.285715 -555.428589 -539.428589 69 69 69
41.333332 -648.000000 -629.333313 28 28 28
29.333334 -432.000000 -419.555542 29 29 29
31.111111 -432.000000 -419.555542 25 25 25
29.600000 -388.799988 -377.600006 22 22 22
1.338877 -4.041580 -3.925156 46 46 46
1.355509 -4.041580 -3.925156 46 46 46
1.748792 -4.695652 -4.560387 44 44 44
1.759615 -4.673077 -4.538462 44 44 44
1.776711 -4.667467 -4.533013 45 45 45
1.640351 -4.263158 -4.140351 46 46 46
1.678135 -4.315205 -4.190899 46 46 46
1.939686 -4.689988 -4.554885 46 46 46
1.919622 -4.595745 -4.463357 46 46 46
1.811159 -4.171674 -4.051502 46 46 46
1.808917 -4.127388 -4.008492 46 46 46
1.820106 -4.114286 -3.995767 46 46 46
1.825447 -4.088328 -3.970557 46 46 46
1.826903 -4.054223 -3.937435 46 46 46
1.839750 -4.045785 -3.929240 46 46 46
1.854470 -4.041580 -3.925156 46 46 46
1.871102 -4.041580 -3.925156 45 45 45
1.883817 -4.033195 -3.917012 45 45 45
2.199280 -4.667467 -4.533013 46 46 46
2.117117 -4.378378 -4.252252 46 46 46
2.120805 -4.348993 -4.223714 47 47 47
2.136313 -4.344134 -4.218995 48 48 48
2.151786 -4.339286 -4.214286 46 46 46
1.987730 -3.975460 -3.860941 46 46 46
2.004090 -3.975460 -3.860941 46 46 46
2.432692 -4.673077 -4.538462 46 46 46
2.451923 -4.673077 -4.538462 46 46 46
2.471154 -4.673077 -4.538462 46 46 46
2.088710 -3.919355 -3.806452 46 46 46
2.104839 -3.919355 -3.806452 46 46 46
2.120968 -3.919355 -3.806452 46 46 46
2.137097 -3.919355 -3.806452 46 46 46
2.153226 -3.919355 -3.806452 46 46 46
2.169355 -3.919355 -3.806452 46 46 46
2.250000 -3.919355 -3.806452 46 46 46
2.266129 -3.919355 -3.806452 46 46 47
2.355879 -4.045785 -3.929240 46 46 48
2.412699 -4.114286 -3.995767 46 46 48
2.419389 -4.096944 -3.978925 47 45 47
2.446561 -4.114286 -3.995767 48 46 47
84.500000 244.000000 236.000000 28 28 26
83.500000 244.000000 236.000000 37 37 35
82.500000 244.000000 236.000000 33 33 31
81.500000 244.000000 236.000000 29 29 27
80.500000 244.000000 236.000000 29 29 27
79.500000 244.000000 236.000000 34 34 32
78.500000 244.000000 236.000000 36 36 34
77.500000 244.000000 236.000000 34 34 32
76.500000 244.000000 236.000000 31 31 29
75.500000 244.000000 236.000000 32 31 29
74.500000 244.000000 236.000000 31 30 28
73.500000 244.000000 236.000000 34 33 31
72.500000 244.000000 236.000000 33 32 30
71.500000 244.000000 236.000000 29 28 26
70.500000 244.000000 236.000000 23 22 20
222.399994 780.799988 755.200012 29 28 26
274.000000 976.000000 944.000000 34 33 31
360.000000 1301.333374 1258.666626 32 31 29
532.000000 1952.000000 1888.000000 28 28 26
524.000000 1952.000000 1888.000000 28 28 26
516.000000 1952.000000 1888.000000 30 30 28
1016.000000 3904.000000 3776.000000 32 32 30
500.000000 1952.000000 1888.000000 31 31 29
328.000000 1301.333374 1258.666626 28 28 26
242.000000 976.000000 944.000000 26 26 24
59.500000 244.000000 236.000000 25 25 23
58.500000 244.000000 236.000000 28 28 26
57.500000 244.000000 236.000000 31 31 29
56.500000 244.000000 236.000000 28 28 26
55.500000 244.000000 236.000000 22 22 20
54.500000 244.000000 236.000000 29 29 27
53.500000 244.000000 236.000000 34 34 32
52.500000 244.000000 236.000000 32 32 30
51.500000 244.000000 236.000000 28 28 26
134.666672 650.666687 629.333313 30 30 28
396.000000 1952.000000 1888.000000 32 32 30
776.000000 3904.000000 3776.000000 30 30 28
-760.000000 -3904.000000 -3776.000000 30 30 28
-744.000000 -3904.000000 -3776.000000 27 27 25
-182.000000 -976.000000 -944.000000 24 24 22
-142.399994 -780.799988 -755.200012 24 24 22
-116.000000 -650.666687 -629.333313 27 27 25
-113.333336 -650.666687 -629.333313 30 30 28
-94.857140 -557.714294 -539.428589 28 28 26
-58.909092 -354.909088 -343.272736 26 26 24
-8.000000 -49.417721 -47.797470 28 28 26
-7.512195 -47.609756 -46.048782 28 28 26
-7.894737 -51.368420 -49.684212 28 28 26
28.500000 244.000000 236.000000 27 27 25
27.500000 244.000000 236.000000 30 30 28
106.000000 976.000000 944.000000 25 25 23
25.500000 244.000000 236.000000 25 25 23
98.000000 976.000000 944.000000 31 31 29
-inf -inf -inf 33 33 31
-180.000000 -1952.000000 -1888.000000 29 29 27
-114.666664 -1301.333374 -1258.666626 29 29 27
-109.333336 -1301.333374 -1258.666626 30 30 28
-312.000000 -3904.000000 -3776.000000 28 28 26
296.000000 3904.000000 3776.000000 26 26 24
280.000000 3904.000000 3776.000000 30 30 28
264.000000 3904.000000 3776.000000 27 27 25
-20.666666 -325.333344 -314.666656 23 23 21
46.400002 780.799988 755.200012 24 24 22
-inf -inf -inf 30 30 28
-inf -inf -inf 32 32 30
-61.333332 -1301.333374 -1258.666626 26 26 24
-56.000000 -1301.333374 -1258.666626 30 30 28
-50.666668 -1301.333374 -1258.666626 31 31 29
-34.000000 -976.000000 -944.000000 31 31 29
-24.000000 -780.799988 -755.200012 33 33 31
-26.000000 -976.000000 -944.000000 32 32 30
-22.000000 -976.000000 -944.000000 25 25 23
-18.000000 -976.000000 -944.000000 19 19 17
-18.666666 -1301.333374 -1258.666626 28 28 28
-20.000000 -1952.000000 -1888.000000 51 51 51
-8.000000 -1301.333374 -1258.666626 45 45 45
-2.666667 -1301.333374 -1258.666626 37 37 37
1.333333 -650.666687 -629.333313 55 55 55
8.000000 -1301.333374 -1258.666626 86 86 86
13.333333 -1301.333374 -1258.666626 94 94 94
28.000000 -1952.000000 -1888.000000 96 96 96
36.000000 -1952.000000 -1888.000000 74 74 74
44.000000 -1952.000000 -1888.000000 46 46 46
26.000000 -976.000000 -944.000000 46 46 46
20.000000 -650.666687 -629.333313 64 64 64
19.428572 -557.714294 -539.428589 48 48 48
15.200000 -390.399994 -377.600006 28 28 28
12.923077 -300.307678 -290.461548 22 22 22
30.857143 -557.714294 -539.428589 28 28 28
33.142857 -557.714294 -539.428589 28 28 28
27.555555 -433.777771 -419.555542 22 22 22
29.333334 -433.777771 -419.555542 27 27 27
28.000000 -390.399994 -377.600006 36 36 36
22.769230 -300.307678 -290.461548 30 30 30
22.285715 -278.857147 -269.714294 23 23 23
21.866667 -260.266663 -251.733337 27 27 27
49.000000 -488.000000 -472.000000 41 41 41
32.533333 -260.266663 -251.733337 45 45 45
33.599998 -260.266663 -251.733337 45 45 45
1.874818 -5.682678 -5.496361 45 45 45
1.898108 -5.682678 -5.496361 45 45 45
1.748792 -4.714976 -4.560387 44 44 44
1.759615 -4.692307 -4.538462 45 45 45
1.713652 -4.332963 -4.190899 47 47 47
1.712404 -4.285401 -4.144896 47 47 47
1.939686 -4.709288 -4.554885 46 46 46
1.915094 -4.603774 -4.452830 45 45 45
1.933962 -4.603774 -4.452830 45 45 45
1.828326 -4.188841 -4.051502 45 45 45
1.837607 -4.170940 -4.034188 45 45 45
1.837037 -4.131217 -3.995767 47 47 47
1.848101 -4.118144 -3.983122 47 47 47
1.864979 -4.118144 -3.983122 45 45 45
2.144231 -4.692307 -4.538462 44 44 44
2.160864 -4.686675 -4.533013 45 45 45
2.180072 -4.686675 -4.533013 46 46 46
2.199280 -4.686675 -4.533013 46 46 46
2.081081 -4.396396 -4.252252 46 46 46
2.251208 -4.714976 -4.560387 46 46 46
2.117117 -4.396396 -4.252252 46 46 46
2.118436 -4.362011 -4.218995 47 47 47
2.136313 -4.362011 -4.218995 47 47 47
2.154190 -4.362011 -4.218995 46 46 46
2.410564 -4.686675 -4.533013 45 45 45
2.432692 -4.692307 -4.538462 46 46 46
2.451923 -4.692307 -4.538462 46 46 46
2.471154 -4.692307 -4.538462 46 46 46
2.484412 -4.681055 -4.527578 46 46 46
2.104839 -3.935484 -3.806452 46 46 46
2.120968 -3.935484 -3.806452 46 46 46
2.137097 -3.935484 -3.806452 46 46 46
2.153226 -3.935484 -3.806452 46 46 46
2.169355 -3.935484 -3.806452 46 46 46
2.270600 -3.971516 -3.841302 46 46 46
2.286877 -3.971516 -3.841302 46 46 47
2.540965 -4.381594 -4.237935 46 46 48
2.740385 -4.692307 -4.538462 46 46 48
2.432203 -4.135593 -4.000000 47 45 47
2.449152 -4.135593 -4.000000 47 45 46
84.500000 245.000000 236.000000 31 31 29
83.500000 245.000000 236.000000 39 39 37
82.500000 245.000000 236.000000 41 41 39
81.500000 245.000000 236.000000 36 36 34
80.500000 245.000000 236.000000 32 32 30
79.500000 245.000000 236.000000 28 28 26
78.500000 245.000000 236.000000 28 28 26
77.500000 245.000000 236.000000 33 33 31
76.500000 245.000000 236.000000 32 32 30
75.500000 245.000000 236.000000 29 28 26
74.500000 245.000000 236.000000 26 25 23
73.500000 245.000000 236.000000 30 29 27
72.500000 245.000000 236.000000 32 31 29
71.500000 245.000000 236.000000 32 31 29
70.500000 245.000000 236.000000 28 27 25
158.857147 560.000000 539.428589 30 29 27
219.199997 784.000000 755.200012 31 30 28
216.000000 784.000000 755.200012 30 29 27
266.000000 980.000000 944.000000 32 32 30
349.333344 1306.666626 1258.666626 29 29 27
516.000000 1960.000000 1888.000000 25 25 23
338.666656 1306.666626 1258.666626 24 24 22
333.333344 1306.666626 1258.666626 29 29 27
196.800003 784.000000 755.200012 29 29 27
60.500000 245.000000 236.000000 26 26 24
59.500000 245.000000 236.000000 25 25 23
58.500000 245.000000 236.000000 29 29 27
57.500000 245.000000 236.000000 33 33 31
56.500000 245.000000 236.000000 31 31 29
55.500000 245.000000 236.000000 27 27 25
54.500000 245.000000 236.000000 30 30 28
53.500000 245.000000 236.000000 30 30 28
52.500000 245.000000 236.000000 31 31 29
51.500000 245.000000 236.000000 32 32 30
50.500000 245.000000 236.000000 29 29 27
264.000000 1306.666626 1258.666626 25 25 23
-inf -inf -inf 23 23 21
-380.000000 -1960.000000 -1888.000000 28 28 26
-372.000000 -1960.000000 -1888.000000 28 28 26
-121.333336 -653.333313 -629.333313 26 26 24
-142.399994 -784.000000 -755.200012 25 25 23
-116.000000 -653.333313 -629.333313 28 28 26
-113.333336 -653.333313 -629.333313 28 28 26
-94.857140 -560.000000 -539.428589 28 28 26
-64.800003 -392.000000 -377.600006 27 27 25
-inf -inf -inf 27 27 25
31.500000 245.000000 236.000000 31 31 29
97.599998 784.000000 755.200012 27 27 25
29.500000 245.000000 236.000000 27 27 25
91.199997 784.000000 755.200012 30 30 28
106.000000 980.000000 944.000000 28 28 26
-360.000000 -3920.000000 -3776.000000 25 25 23
-114.666664 -1306.666626 -1258.666626 29 29 27
-109.333336 -1306.666626 -1258.666626 30 30 28
-312.000000 -3920.000000 -3776.000000 27 27 25
296.000000 3920.000000 3776.000000 27 27 25
280.000000 3920.000000 3776.000000 32 32 30
264.000000 3920.000000 3776.000000 34 34 32
-20.666666 -326.666656 -314.666656 31 31 29
-77.333336 -1306.666626 -1258.666626 33 33 31
-72.000000 -1306.666626 -1258.666626 28 28 26
-66.666664 -1306.666626 -1258.666626 24 24 22
-61.333332 -1306.666626 -1258.666626 26 26 24
-56.000000 -1306.666626 -1258.666626 44 44 42
-38.000000 -980.000000 -944.000000 32 32 30
-27.200001 -784.000000 -755.200012 25 25 23
-24.000000 -784.000000 -755.200012 39 39 37
-20.799999 -784.000000 -755.200012 64 64 62
-22.000000 -980.000000 -944.000000 55 55 53
-18.000000 -980.000000 -944.000000 39 39 37
-18.666666 -1306.666626 -1258.666626 76 76 75
-20.000000 -1960.000000 -1888.000000 121 121 121
-12.000000 -1960.000000 -1888.000000 117 117 117
-4.000000 -1960.000000 -1888.000000 112 112 112
2.666667 -1306.666626 -1258.666626 89 89 89
8.000000 -1306.666626 -1258.666626 57 57 57
13.333333 -1306.666626 -1258.666626 58 58 58
28.000000 -1960.000000 -1888.000000 58 58 58
72.000000 -3920.000000 -3776.000000 41 41 41
44.000000 -1960.000000 -1888.000000 23 23 23
52.000000 -1960.000000 -1888.000000 21 21 21
20.000000 -653.333313 -629.333313 22 22 22
19.428572 -560.000000 -539.428589 22 22 22
11.692307 -301.538452 -290.461548 28 28 28
12.000000 -280.000000 -269.714294 28 28 28
14.153846 -301.538452 -290.461548 25 25 25
28.571428 -560.000000 -539.428589 35 35 35
30.857143 -560.000000 -539.428589 41 41 41
33.142857 -560.000000 -539.428589 36 36 36
31.000000 -490.000000 -472.000000 30 30 30
29.333334 -435.555542 -419.555542 34 34 34
25.454546 -356.363647 -343.272736 43 43 43
22.769230 -301.538452 -290.461548 41 41 41
22.285715 -280.000000 -269.714294 40 40 40
21.866667 -261.333344 -251.733337 40 40 40
24.571428 -280.000000 -269.714294 42 42 42
30.000000 -326.666656 -314.666656 44 44 44
62.666668 -653.333313 -629.333313 45 45 45
49.000000 -490.000000 -472.000000 46 46 46
102.000000 -980.000000 -944.000000 46 46 46
67.428574 -560.000000 -539.428589 44 44 44
37.538460 -301.538452 -290.461548 44 44 44
38.769230 -301.538452 -290.461548 44 44 44
1.874818 -5.705968 -5.496361 45 45 45
1.898108 -5.705968 -5.496361 45 45 45
1.644231 -4.711538 -4.538462 45 45 45
1.661465 -4.705883 -4.533013 45 45 45
1.704194 -4.326711 -4.167770 46 46 46
1.710526 -4.298245 -4.140351 45 45 45
1.728070 -4.298245 -4.140351 45 45 45
1.922705 -4.734300 -4.560387 46 46 46
1.942029 -4.734300 -4.560387 46 46 46
1.915094 -4.622642 -4.452830 45 45 45
1.933962 -4.622642 -4.452830 45 45 45
1.985612 -4.700240 -4.527578 45 45 45
2.009615 -4.711538 -4.538462 45 45 45
2.023981 -4.700240 -4.527578 45 45 45
1.828326 -4.206008 -4.051502 45 45 45
1.837607 -4.188034 -4.034188 45 45 45
1.842888 -4.161359 -4.008492 46 46 46
2.105769 -4.711538 -4.538462 46 46 46
2.125000 -4.711538 -4.538462 45 45 45
2.144231 -4.711538 -4.538462 44 44 44
2.163461 -4.711538 -4.538462 45 45 45
2.180072 -4.705883 -4.533013 46 46 46
2.199280 -4.705883 -4.533013 46 46 46
2.081081 -4.414414 -4.252252 46 46 46
2.251208 -4.734300 -4.560387 46 46 46
2.270531 -4.734300 -4.560387 46 46 46
2.118436 -4.379888 -4.218995 46 46 46
2.136313 -4.379888 -4.218995 46 46 46
2.432692 -4.711538 -4.538462 46 46 46
2.451923 -4.711538 -4.538462 46 46 46
2.471154 -4.711538 -4.538462 46 46 46
2.104839 -3.951613 -3.806452 46 46 46
2.120968 -3.951613 -3.806452 46 46 46
2.137097 -3.951613 -3.806452 47 47 47
2.153226 -3.951613 -3.806452 46 46 46
2.169355 -3.951613 -3.806452 45 45 45
2.185484 -3.951613 -3.806452 47 47 47
2.279877 -4.004086 -3.856997 46 46 46
2.508929 -4.375000 -4.214286 46 46 47
2.529609 -4.379888 -4.218995 46 46 48
2.733813 -4.700240 -4.527578 46 46 48
2.752998 -4.700240 -4.527578 47 45 47
2.772182 -4.700240 -4.527578 48 46 47
84.500000 246.000000 236.000000 35 35 33
83.500000 246.000000 236.000000 31 31 29
82.500000 246.000000 236.000000 29 29 27
81.500000 246.000000 236.000000 32 32 30
80.500000 246.000000 236.000000 33 33 31
79.500000 246.000000 236.000000 28 28 26
78.500000 246.000000 236.000000 27 27 25
77.500000 246.000000 236.000000 34 34 32
76.500000 246.000000 236.000000 32 32 30
75.500000 246.000000 236.000000 32 31 29
74.500000 246.000000 236.000000 32 31 29
73.500000 246.000000 236.000000 33 32 30
72.500000 246.000000 236.000000 32 31 29
71.500000 246.000000 236.000000 32 31 29
70.500000 246.000000 236.000000 31 30 28
69.500000 246.000000 236.000000 30 29 27
156.571426 562.285706 539.428589 26 25 23
154.285721 562.285706 539.428589 24 23 21
152.000000 562.285706 539.428589 29 29 27
149.714279 562.285706 539.428589 30 30 28
172.000000 656.000000 629.333313 24 24 22
203.199997 787.200012 755.200012 24 24 22
142.857147 562.285706 539.428589 32 32 30
61.500000 246.000000 236.000000 33 33 31
60.500000 246.000000 236.000000 32 32 30
59.500000 246.000000 236.000000 29 29 27
58.500000 246.000000 236.000000 31 31 29
57.500000 246.000000 236.000000 27 27 25
56.500000 246.000000 236.000000 26 26 24
55.500000 246.000000 236.000000 30 30 28
54.500000 246.000000 236.000000 30 30 28
53.500000 246.000000 236.000000 22 22 20
52.500000 246.000000 236.000000 23 23 21
51.500000 246.000000 236.000000 27 27 25
50.500000 246.000000 236.000000 28 28 26
49.500000 246.000000 236.000000 28 28 26
258.666656 1312.000000 1258.666626 26 26 24
-380.000000 -1968.000000 -1888.000000 29 29 27
-248.000000 -1312.000000 -1258.666626 31 31 29
-145.600006 -787.200012 -755.200012 30 30 28
-356.000000 -1968.000000 -1888.000000 29 29 27
-232.000000 -1312.000000 -1258.666626 28 28 26
-226.666672 -1312.000000 -1258.666626 23 23 21
-664.000000 -3936.000000 -3776.000000 24 24 22
648.000000 3936.000000 3776.000000 27 27 25
126.000000 984.000000 944.000000 27 27 25
-inf -inf -inf 25 25 23
472.000000 3936.000000 3776.000000 30 30 28
-344.000000 -3936.000000 -3776.000000 37 37 35
-328.000000 -3936.000000 -3776.000000 39 39 37
-312.000000 -3936.000000 -3776.000000 33 33 31
280.000000 3936.000000 3776.000000 26 26 24
-16.533333 -262.399994 -251.733337 37 37 35
-21.090910 -357.818176 -343.272736 52 52 50
-43.200001 -787.200012 -755.200012 28 28 26
-66.666664 -1312.000000 -1258.666626 18 18 16
-61.333332 -1312.000000 -1258.666626 30 30 29
-42.000000 -984.000000 -944.000000 79 79 77
-30.400000 -787.200012 -755.200012 55 55 53
-27.200001 -787.200012 -755.200012 32 32 30
-20.000000 -656.000000 -629.333313 44 44 42
-17.333334 -656.000000 -629.333313 70 70 68
-22.000000 -984.000000 -944.000000 69 69 67
-18.000000 -984.000000 -944.000000 58 58 56
-18.666666 -1312.000000 -1258.666626 63 63 62
-20.000000 -1968.000000 -1888.000000 52 52 52
-12.000000 -1968.000000 -1888.000000 38 38 38
-4.000000 -1968.000000 -1888.000000 39 39 39
4.000000 -1968.000000 -1888.000000 28 28 28
24.000000 -3936.000000 -3776.000000 19 19 19
40.000000 -3936.000000 -3776.000000 20 20 20
inf -inf -inf 16 16 16
inf -inf -inf 20 20 20
88.000000 -3936.000000 -3776.000000 26 26 26
52.000000 -1968.000000 -1888.000000 30 30 30
30.000000 -984.000000 -944.000000 29 29 29
22.666666 -656.000000 -629.333313 33 33 33
12.666667 -328.000000 -314.666656 39 39 39
12.923077 -302.769226 -290.461548 40 40 40
14.153846 -302.769226 -290.461548 39 39 39
28.571428 -562.285706 -539.428589 44 44 44
36.000000 -656.000000 -629.333313 45 45 45
38.666668 -656.000000 -629.333313 43 43 43
41.333332 -656.000000 -629.333313 45 45 45
29.333334 -437.333344 -419.555542 45 45 45
25.454546 -357.818176 -343.272736 45 45 45
22.769230 -302.769226 -290.461548 44 44 44
22.285715 -281.142853 -269.714294 46 46 46
25.230770 -302.769226 -290.461548 44 44 44
26.461538 -302.769226 -290.461548 44 44 44
30.000000 -328.000000 -314.666656 44 44 44
62.666668 -656.000000 -629.333313 45 45 45
65.333336 -656.000000 -629.333313 45 45 45
152.000000 -1312.000000 -1258.666626 44 44 44
67.428574 -562.285706 -539.428589 43 43 43
81.333336 -656.000000 -629.333313 43 43 43
100.800003 -787.200012 -755.200012 43 43 43
104.000000 -787.200012 -755.200012 43 43 43
1.657795 -7.482890 -7.178707 45 45 45
1.874818 -5.729258 -5.496361 45 45 45
1.898108 -5.729258 -5.496361 45 45 45
1.921397 -5.729258 -5.496361 45 45 45
1.944687 -5.729258 -5.496361 45 45 45
1.626956 -4.736462 -4.543923 45 45 45
1.644231 -4.730769 -4.538462 45 45 45
1.395161 -3.967742 -3.806452 45 45 45
1.411290 -3.967742 -3.806452 45 45 45
1.530811 -4.255135 -4.082162 45 45 45
1.832134 -4.719424 -4.527578 45 45 45
1.704194 -4.344371 -4.167770 45 45 45
1.710526 -4.315790 -4.140351 44 44 44
1.728070 -4.315790 -4.140351 44 44 44
1.922705 -4.753623 -4.560387 45 45 45
2.017566 -4.938519 -4.737767 45 45 45
2.037641 -4.938519 -4.737767 45 45 45
1.938534 -4.652482 -4.463357 45 45 45
1.985612 -4.719424 -4.527578 45 45 45
2.004796 -4.719424 -4.527578 45 45 45
2.023981 -4.719424 -4.527578 45 45 45
1.884956 -4.353982 -4.176991 45 45 45
1.881838 -4.306346 -4.131291 45 45 45
1.895197 -4.296943 -4.122271 45 45 45
2.105769 -4.730769 -4.538462 45 45 45
2.125000 -4.730769 -4.538462 44 44 44
2.144231 -4.730769 -4.538462 44 44 44
2.163461 -4.730769 -4.538462 45 45 45
2.180072 -4.725090 -4.533013 46 46 46
2.199280 -4.725090 -4.533013 46 46 46
2.074074 -4.417509 -4.237935 46 46 46
2.251208 -4.753623 -4.560387 46 46 46
2.270531 -4.753623 -4.560387 46 46 46
2.289855 -4.753623 -4.560387 46 46 46
2.199775 -4.417509 -4.237935 46 46 46
2.217733 -4.417509 -4.237935 46 46 46
2.240720 -4.427446 -4.247469 46 46 46
2.432692 -4.730769 -4.538462 46 46 46
2.451923 -4.730769 -4.538462 46 46 46
2.471154 -4.730769 -4.538462 46 46 46
2.104839 -3.967742 -3.806452 46 46 46
2.120968 -3.967742 -3.806452 46 46 46
2.137097 -3.967742 -3.806452 47 47 47
2.153226 -3.967742 -3.806452 46 46 46
2.169355 -3.967742 -3.806452 45 45 45
2.185484 -3.967742 -3.806452 47 47 47
2.224033 -4.008147 -3.845214 46 46 46
2.217742 -3.967742 -3.806452 46 46 46
2.263534 -4.020429 -3.856997 46 46 46
2.279877 -4.020429 -3.856997 46 46 46
2.511732 -4.397765 -4.218995 46 46 47
2.540965 -4.417509 -4.237935 46 46 48
2.737095 -4.725090 -4.533013 46 46 48
2.756303 -4.725090 -4.533013 47 45 47
2.772182 -4.719424 -4.527578 48 46 47
84.500000 247.000000 236.000000 35 35 33
83.500000 247.000000 236.000000 30 30 28
82.500000 247.000000 236.000000 27 27 25
81.500000 247.000000 236.000000 34 34 32
80.500000 247.000000 236.000000 35 35 33
79.500000 247.000000 236.000000 35 35 33
78.500000 247.000000 236.000000 35 35 33
77.500000 247.000000 236.000000 35 35 33
76.500000 247.000000 236.000000 30 30 28
75.500000 247.000000 236.000000 31 31 29
74.500000 247.000000 236.000000 36 35 33
73.500000 247.000000 236.000000 33 32 30
72.500000 247.000000 236.000000 24 23 21
71.500000 247.000000 236.000000 27 26 24
70.500000 247.000000 236.000000 33 32 30
69.500000 247.000000 236.000000 33 32 30
68.500000 247.000000 236.000000 28 27 25
67.500000 247.000000 236.000000 27 27 25
66.500000 247.000000 236.000000 31 31 29
65.500000 247.000000 236.000000 31 31 29
64.500000 247.000000 236.000000 30 30 28
63.500000 247.000000 236.000000 29 29 27
62.500000 247.000000 236.000000 29 29 27
61.500000 247.000000 236.000000 23 24 21
60.500000 247.000000 236.000000 27 27 25
59.500000 247.000000 236.000000 30 31 28
58.500000 247.000000 236.000000 29 29 27
57.500000 247.000000 236.000000 24 24 22
56.500000 247.000000 236.000000 25 25 23
55.500000 247.000000 236.000000 28 28 26
54.500000 247.000000 236.000000 29 29 27
53.500000 247.000000 236.000000 27 27 25
52.500000 247.000000 236.000000 25 25 23
51.500000 247.000000 236.000000 26 26 24
50.500000 247.000000 236.000000 27 27 25
49.500000 247.000000 236.000000 28 28 26
258.666656 1317.333374 1258.666626 28 28 26
-253.333328 -1317.333374 -1258.666626 28 28 26
-248.000000 -1317.333374 -1258.666626 28 28 26
-364.000000 -1976.000000 -1888.000000 27 27 25
-inf -inf -inf 29 29 27
-696.000000 -3952.000000 -3776.000000 29 29 27
-680.000000 -3952.000000 -3776.000000 25 25 23
-inf -inf -inf 25 25 23
648.000000 3952.000000 3776.000000 32 32 30
316.000000 1976.000000 1888.000000 33 33 31
-inf -inf -inf 18 18 16
-122.000000 -988.000000 -944.000000 23 23 21
-118.000000 -988.000000 -944.000000 35 35 33
-inf -inf -inf 31 31 29
-328.000000 -3952.000000 -3776.000000 27 27 25
-312.000000 -3952.000000 -3776.000000 40 41 39
-296.000000 -3952.000000 -3776.000000 60 61 59
-inf -inf -inf 24 24 22
-72.000000 -1317.333374 -1258.666626 36 36 34
-66.666664 -1317.333374 -1258.666626 33 33 31
-36.799999 -790.400024 -755.200012 33 33 31
-33.599998 -790.400024 -755.200012 40 40 38
-30.400000 -790.400024 -755.200012 35 35 33
-22.666666 -658.666687 -629.333313 30 30 28
-17.142857 -564.571411 -539.428589 24 24 22
-14.857142 -564.571411 -539.428589 23 23 21
-14.666667 -658.666687 -629.333313 20 20 18
-18.000000 -988.000000 -944.000000 22 22 20
-28.000000 -1976.000000 -1888.000000 25 25 24
-20.000000 -1976.000000 -1888.000000 24 24 24
-12.000000 -1976.000000 -1888.000000 23 24 23
-2.666667 -1317.333374 -1258.666626 20 20 20
4.000000 -1976.000000 -1888.000000 21 22 21
24.000000 -3952.000000 -3776.000000 27 27 27
40.000000 -3952.000000 -3776.000000 29 29 29
inf -inf -inf 30 30 30
inf -inf -inf 32 32 32
88.000000 -3952.000000 -3776.000000 37 37 37
34.666668 -1317.333374 -1258.666626 39 39 39
40.000000 -1317.333374 -1258.666626 39 39 39
34.000000 -988.000000 -944.000000 41 41 41
16.888889 -439.111115 -419.555542 41 41 41
12.923077 -304.000000 -290.461548 43 43 43
14.153846 -304.000000 -290.461548 44 44 44
18.181818 -359.272736 -343.272736 45 45 45
30.857143 -564.571411 -539.428589 44 44 44
38.666668 -658.666687 -629.333313 45 45 45
35.428570 -564.571411 -539.428589 50 50 50
29.333334 -439.111115 -419.555542 49 49 49
23.333334 -329.333344 -314.666656 46 46 46
22.769230 -304.000000 -290.461548 45 45 45
24.000000 -304.000000 -290.461548 45 45 45
25.230770 -304.000000 -290.461548 44 44 44
26.461538 -304.000000 -290.461548 44 44 44
30.000000 -329.333344 -314.666656 43 43 43
76.000000 -658.666687 -629.333313 44 44 44
78.666664 -658.666687 -629.333313 44 44 44
97.599998 -790.400024 -755.200012 44 44 44
100.800003 -790.400024 -755.200012 44 44 44
104.000000 -790.400024 -755.200012 43 43 43
1.639847 -7.570881 -7.233716 45 45 45
1.657795 -7.513308 -7.178707 45 45 45
1.701149 -7.570881 -7.233716 45 45 45
1.898108 -5.752547 -5.496361 45 45 45
1.921397 -5.752547 -5.496361 45 45 45
1.941860 -5.744186 -5.488372 45 45 45
1.636804 -4.784503 -4.571429 45 45 45
1.644231 -4.750000 -4.538462 45 45 45
1.395161 -3.983871 -3.806452 45 45 45
1.411290 -3.983871 -3.806452 45 45 45
1.427419 -3.983871 -3.806452 46 46 46
1.443548 -3.983871 -3.806452 45 45 45
1.828295 -4.778718 -4.565901 44 44 44
1.821216 -4.710370 -4.500596 44 44 44
1.829384 -4.682465 -4.473934 45 45 45
1.721854 -4.362031 -4.167770 45 45 45
1.887425 -4.732934 -4.522156 44 44 44
2.022872 -5.021601 -4.797967 45 45 45
2.022641 -4.971069 -4.749686 45 45 45
2.063532 -5.021601 -4.797967 45 45 45
2.062893 -4.971069 -4.749686 45 45 45
1.985612 -4.738609 -4.527578 45 45 45
2.004796 -4.738609 -4.527578 45 45 45
2.023981 -4.738609 -4.527578 45 45 45
2.038278 -4.727273 -4.516747 45 45 45
2.062350 -4.738609 -4.527578 45 45 45
2.081535 -4.738609 -4.527578 44 44 44
2.105769 -4.750000 -4.538462 44 44 44
2.125000 -4.750000 -4.538462 44 44 44
2.144231 -4.750000 -4.538462 44 44 44
2.163461 -4.750000 -4.538462 45 45 45
2.180072 -4.744298 -4.533013 46 46 46
2.199280 -4.744298 -4.533013 46 46 46
2.229192 -4.767190 -4.554885 46 46 46
2.248492 -4.767190 -4.554885 46 46 46
2.270531 -4.772947 -4.560387 46 46 46
2.192394 -4.420582 -4.223714 46 46 46
2.210291 -4.420582 -4.223714 46 46 46
2.471154 -4.750000 -4.538462 46 46 46
2.088710 -3.983871 -3.806452 46 46 46
2.104839 -3.983871 -3.806452 46 46 46
2.120968 -3.983871 -3.806452 46 46 46
2.137097 -3.983871 -3.806452 47 47 47
2.153226 -3.983871 -3.806452 46 46 46
2.169355 -3.983871 -3.806452 45 45 46
2.185484 -3.983871 -3.806452 47 47 47
2.201613 -3.983871 -3.806452 46 46 46
2.217742 -3.983871 -3.806452 46 46 46
2.233871 -3.983871 -3.806452 46 46 46
2.268293 -4.016260 -3.837398 46 46 46
2.296221 -4.036772 -3.856997 46 46 47
2.717887 -4.744298 -4.533013 46 46 48
2.740385 -4.750000 -4.538462 46 46 48
2.756303 -4.744298 -4.533013 47 45 47
2.772182 -4.738609 -4.527578 48 46 46
84.500000 248.000000 236.000000 34 33 31
83.500000 248.000000 236.000000 34 33 31
82.500000 248.000000 236.000000 32 32 30
81.500000 248.000000 236.000000 32 32 30
80.500000 248.000000 236.000000 30 30 28
79.500000 248.000000 236.000000 33 33 31
78.500000 248.000000 236.000000 37 37 35
77.500000 248.000000 236.000000 33 33 31
76.500000 248.000000 236.000000 28 28 26
75.500000 248.000000 236.000000 29 28 26
74.500000 248.000000 236.000000 36 35 33
73.500000 248.000000 236.000000 35 34 32
72.500000 248.000000 236.000000 29 28 26
71.500000 248.000000 236.000000 31 30 28
70.500000 248.000000 236.000000 35 34 32
69.500000 248.000000 236.000000 34 33 31
68.500000 248.000000 236.000000 30 29 27
67.500000 248.000000 236.000000 32 31 29
65.500000 248.000000 236.000000 24 23 21
64.500000 248.000000 236.000000 27 26 24
63.500000 248.000000 236.000000 30 30 28
62.500000 248.000000 236.000000 28 29 26
61.500000 248.000000 236.000000 21 22 20
60.500000 248.000000 236.000000 22 24 21
59.500000 248.000000 236.000000 29 29 27
58.500000 248.000000 236.000000 32 32 30
57.500000 248.000000 236.000000 30 30 28
56.500000 248.000000 236.000000 27 27 25
55.500000 248.000000 236.000000 26 26 24
54.500000 248.000000 236.000000 25 25 23
53.500000 248.000000 236.000000 31 31 29
52.500000 248.000000 236.000000 26 26 24
51.500000 248.000000 236.000000 26 26 24
258.666656 1322.666626 1258.666626 30 30 28
-152.000000 -793.599976 -755.200012 29 29 27
-148.800003 -793.599976 -755.200012 27 27 25
-364.000000 -1984.000000 -1888.000000 27 27 25
-inf -inf -inf 33 33 31
-inf -inf -inf 34 34 33
-inf -inf -inf 30 30 30
-inf -inf -inf 30 30 30
-inf -inf -inf 28 28 28
-5.906542 -37.084110 -35.289719 25 25 24
-5.651376 -36.403671 -34.642200 29 29 29
-5.454545 -36.072727 -34.327274 41 41 40
-5.261261 -35.747749 -34.018017 25 25 24
260.000000 1984.000000 1888.000000 42 44 42
-126.000000 -992.000000 -944.000000 33 34 33
-81.333336 -661.333313 -629.333313 45 46 45
-52.444443 -440.888885 -419.555542 52 53 52
-76.000000 -661.333313 -629.333313 46 48 46
-312.000000 -3968.000000 -3776.000000 28 29 26
-2.666667 -35.747749 -34.018017 44 46 43
-2.641510 -37.433964 -35.622643 30 31 28
-20.000000 -396.799988 -377.600006 29 30 27
-16.727272 -360.727264 -343.272736 27 28 26
-24.000000 -566.857117 -539.428589 22 23 21
-21.714285 -566.857117 -539.428589 18 19 16
-19.428572 -566.857117 -539.428589 17 19 16
-13.333333 -440.888885 -419.555542 21 22 19
-14.857142 -566.857117 -539.428589 26 27 24
-12.571428 -566.857117 -539.428589 28 30 27
-18.000000 -992.000000 -944.000000 24 26 23
-28.000000 -1984.000000 -1888.000000 27 28 27
-20.000000 -1984.000000 -1888.000000 29 30 30
-12.000000 -1984.000000 -1888.000000 32 34 33
-2.666667 -1322.666626 -1258.666626 34 35 34
4.000000 -1984.000000 -1888.000000 36 38 37
24.000000 -3968.000000 -3776.000000 39 40 39
inf -inf -inf 39 40 39
inf -inf -inf 41 42 42
72.000000 -3968.000000 -3776.000000 42 43 42
29.333334 -1322.666626 -1258.666626 42 42 42
34.666668 -1322.666626 -1258.666626 43 43 43
30.000000 -992.000000 -944.000000 43 43 43
45.333332 -1322.666626 -1258.666626 43 43 43
38.000000 -992.000000 -944.000000 43 43 43
18.666666 -440.888885 -419.555542 44 44 44
16.727272 -360.727264 -343.272736 43 43 43
18.181818 -360.727264 -343.272736 45 45 45
19.636364 -360.727264 -343.272736 45 45 45
19.333334 -330.666656 -314.666656 45 45 45
20.666666 -330.666656 -314.666656 46 46 46
29.333334 -440.888885 -419.555542 45 45 45
31.111111 -440.888885 -419.555542 44 44 44
24.000000 -305.230774 -290.461548 44 44 44
27.333334 -330.666656 -314.666656 43 43 43
26.461538 -305.230774 -290.461548 44 44 44
30.000000 -330.666656 -314.666656 45 45 45
157.333328 -1322.666626 -1258.666626 45 45 45
97.599998 -793.599976 -755.200012 44 44 44
100.800003 -793.599976 -755.200012 44 44 44
74.285713 -566.857117 -539.428589 44 44 44
1.652510 -7.660232 -7.289575 46 46 46
1.680154 -7.645472 -7.275530 46 46 46
1.898108 -5.775837 -5.496361 45 45 45
1.921397 -5.775837 -5.496361 45 45 45
1.944687 -5.775837 -5.496361 45 45 45
1.636804 -4.803874 -4.571429 45 45 45
1.646209 -4.774970 -4.543923 45 45 45
1.395161 -4.000000 -3.806452 45 45 45
1.411290 -4.000000 -3.806452 45 45 45
1.427419 -4.000000 -3.806452 45 45 45
1.443548 -4.000000 -3.806452 45 45 45
1.459677 -4.000000 -3.806452 44 44 44
1.828295 -4.798065 -4.565901 45 45 45
1.816885 -4.718193 -4.489893 45 45 45
1.829384 -4.701422 -4.473934 45 45 45
1.848341 -4.701422 -4.473934 45 45 45
1.894231 -4.769231 -4.538462 44 44 44
2.051546 -5.113402 -4.865979 45 45 45
2.043202 -5.041931 -4.797967 45 45 45
2.040719 -4.752096 -4.522156 46 46 46
2.059880 -4.752096 -4.522156 46 46 46
2.081535 -4.757794 -4.527578 44 44 44
2.103241 -4.763505 -4.533013 44 44 44
2.125000 -4.769231 -4.538462 44 44 44
2.144231 -4.769231 -4.538462 44 44 44
2.163461 -4.769231 -4.538462 45 45 45
2.180072 -4.763505 -4.533013 46 46 46
2.243081 -4.774970 -4.543923 46 46 47
2.267792 -4.786490 -4.554885 46 46 47
2.189944 -4.433519 -4.218995 46 46 47
2.207821 -4.433519 -4.218995 46 46 47
2.072581 -4.000000 -3.806452 46 46 47
2.088710 -4.000000 -3.806452 46 46 47
2.104839 -4.000000 -3.806452 46 46 47
2.120968 -4.000000 -3.806452 46 46 47
2.137097 -4.000000 -3.806452 46 46 47
2.153226 -4.000000 -3.806452 46 46 47
2.169355 -4.000000 -3.806452 46 46 47
2.185484 -4.000000 -3.806452 47 47 48
2.201613 -4.000000 -3.806452 47 47 48
2.217742 -4.000000 -3.806452 47 47 48
2.233871 -4.000000 -3.806452 47 47 48
2.250000 -4.000000 -3.806452 47 47 48
2.284553 -4.032520 -3.837398 47 47 48
2.717887 -4.763505 -4.533013 47 47 49
7.102804 -12.361371 -11.763240 47 47 49
7.152648 -12.361371 -11.763240 47 46 47
7.202492 -12.361371 -11.763240 47 46 47
84.500000 249.000000 236.000000 26 25 23
83.500000 249.000000 236.000000 30 30 28
82.500000 249.000000 236.000000 35 35 33
81.500000 249.000000 236.000000 31 31 29
80.500000 249.000000 236.000000 26 26 24
79.500000 249.000000 236.000000 30 30 28
78.500000 249.000000 236.000000 36 36 34
77.500000 249.000000 236.000000 34 34 32
76.500000 249.000000 236.000000 30 30 28
75.500000 249.000000 236.000000 29 28 26
74.500000 249.000000 236.000000 31 30 28
73.500000 249.000000 236.000000 31 30 28
72.500000 249.000000 236.000000 33 32 30
71.500000 249.000000 236.000000 32 31 29
70.500000 249.000000 236.000000 30 29 27
69.500000 249.000000 236.000000 22 21 19
68.500000 249.000000 236.000000 28 27 25
62.500000 249.000000 236.000000 30 32 29
61.500000 249.000000 236.000000 29 31 28
-8.880733 -36.550457 -34.642200 27 29 26
59.500000 249.000000 236.000000 26 27 24
58.500000 249.000000 236.000000 25 25 23
57.500000 249.000000 236.000000 32 32 30
56.500000 249.000000 236.000000 34 34 32
55.500000 249.000000 236.000000 28 28 26
54.500000 249.000000 236.000000 21 21 19
53.500000 249.000000 236.000000 29 29 27
52.500000 249.000000 236.000000 34 34 32
-36.952381 -189.714279 -179.809525 34 34 32
-47.500000 -249.000000 -236.000000 33 33 31
-46.500000 -249.000000 -236.000000 31 31 29
-60.666668 -332.000000 -314.666656 36 36 34
-inf -inf -inf 35 35 35
-221.333328 -1328.000000 -1258.666626 51 51 51
-6.056075 -37.233646 -35.289719 33 33 33
-5.745454 -36.218182 -34.327274 19 19 19
-5.600000 -36.218182 -34.327274 30 30 30
-5.405406 -35.891891 -34.018017 60 60 60
-5.261261 -35.891891 -34.018017 65 65 65
-56.000000 -442.666656 -419.555542 57 59 58
-54.222221 -442.666656 -419.555542 66 68 67
-4.214286 -35.571430 -33.714287 41 43 42
-4.035398 -35.256638 -33.415928 23 25 24
-3.859649 -34.947369 -33.122807 39 41 38
-3.686956 -34.643478 -32.834782 57 59 56
-3.500000 -35.571430 -33.714287 20 22 19
-3.357143 -35.571430 -33.714287 21 23 20
-2.810811 -35.891891 -34.018017 24 26 23
-2.642857 -35.571430 -33.714287 22 24 21
-2.616822 -37.233646 -35.289719 25 27 24
-2.490566 -37.584908 -35.622643 23 25 22
-13.333333 -265.600006 -251.733337 21 23 20
-12.266666 -265.600006 -251.733337 25 27 24
-12.923077 -306.461548 -290.461548 25 27 24
-15.200000 -398.399994 -377.600006 25 27 24
-17.000000 -498.000000 -472.000000 29 31 28
-12.000000 -398.399994 -377.600006 35 37 34
-11.555555 -442.666656 -419.555542 38 40 37
-12.571428 -569.142883 -539.428589 40 42 39
-12.000000 -664.000000 -629.333313 38 40 37
-28.000000 -1992.000000 -1888.000000 37 39 37
24.000000 -3984.000000 -3776.000000 43 45 44
40.000000 -3984.000000 -3776.000000 43 45 44
56.000000 -3984.000000 -3776.000000 43 45 44
36.000000 -1992.000000 -1888.000000 43 44 43
22.000000 -996.000000 -944.000000 43 43 43
20.799999 -796.799988 -755.200012 43 43 43
24.000000 -796.799988 -755.200012 43 43 43
16.727272 -362.181824 -343.272736 43 43 43
16.666666 -332.000000 -314.666656 44 44 44
18.000000 -332.000000 -314.666656 45 45 45
15.466666 -265.600006 -251.733337 45 45 45
16.533333 -265.600006 -251.733337 45 45 45
20.307692 -306.461548 -290.461548 44 44 44
26.461538 -306.461548 -290.461548 45 45 45
27.692308 -306.461548 -290.461548 46 46 46
31.333334 -332.000000 -314.666656 43 43 43
32.666668 -332.000000 -314.666656 43 43 43
2.273128 -8.775331 -8.317181 46 46 46
2.344519 -8.912752 -8.447428 46 46 46
2.720000 -8.853333 -8.391111 45 45 45
